# 3D point list with one line of data per point:
#   POINT3D_ID, X, Y, Z, R, G, B, ERROR, TRACK[] as (IMAGE_ID, POINT2D_IDX)
# Number of points: 393, mean track length: 3.7570059266847151
8212 10.613763446594549 4.43142453575744 -5.908447251574974 167 57 20 1.0045565735091724 42 1106 65 851 64 835 39 1241 59 683
8213 11.968310465189985 4.7026012707702547 -6.2735111570496711 157 48 16 0.40860165658173569 42 604 65 853
8214 12.436553796962032 3.8681477558732769 -4.9046496748729176 40 35 32 0.2776464758741618 42 1328 65 871
8215 2.6425967605009002 1.1735421451263706 0.62089823983741466 252 236 209 0.21872702058754065 46 1377 65 875 64 851
8216 2.624496735437353 1.2377296222894534 0.64108071255647459 254 239 208 0.97327125832860173 46 976 65 882 64 857
8217 3.1685374279504237 1.8484260059608761 -0.6644257419437396 25 108 122 0.42643251021607836 42 1006 64 622
8218 7.8622263756565163 0.40542900560367601 -0.64618669660058659 185 165 141 1.3975148286296561 46 2564 65 926 64 4929 55 265 67 167
8219 9.3717007353338015 2.0200444266576509 -3.3274300163297141 139 126 111 0.90497340657746561 42 1861 65 929 64 956
8220 11.086844443982402 2.017220879935226 -4.6575272287642351 229 216 207 0.7710440925337072 38 1456 65 963 39 848 64 1294
8221 11.935538467248355 1.7463310185178595 -2.7859534407135786 77 66 60 0.15517758691774525 38 640 65 964
8222 10.960609719918676 2.0877815072989443 -4.6716970140916994 135 119 104 1.1138774473052537 38 2492 65 966 39 1360 55 626
8223 9.2925109839316757 1.6135427836580001 -2.480695912889896 83 19 31 0.19590402113632599 46 1080 65 971 59 685
8224 5.6635737036353602 0.84544747609207938 0.41875872444289364 205 195 183 0.33277995332365967 42 1204 65 990 64 1196
8225 11.603183714678682 3.5241142194096144 -6.8365863078555966 167 145 131 0.34038335544284193 42 693 65 997 64 970 59 889
8226 10.932349985280375 3.0574261739065483 -4.7268567635456371 45 38 30 0.88659095760305273 38 1523 65 1000
8227 11.593316077992611 3.6560476846132817 -6.8040289295412668 135 113 99 0.71554006230318568 42 1898 65 1001 64 976 59 752
8229 9.3348360371486638 4.6954447664773342 -4.4676836231752786 196 163 141 0.17939405168718811 42 1440 65 1037 39 1538
8230 11.875342266567985 3.869583639523035 -5.9490026449026958 70 54 41 0.43801001989211708 42 1679 65 1056 64 1183 55 753
8231 11.899498012657688 3.8726197361317363 -5.9645623115943671 70 54 41 0.67220161013653146 42 1678 46 2971 65 1057 42 5681 64 1184 59 2946 55 754
8233 9.3896530442747927 1.6987010499566948 -2.5129757722750479 115 95 94 0.48350211559551576 42 1245 65 1065 59 1571
8234 1.4305709185764504 3.1081903561602786 0.10310980389830128 154 139 118 0.62208951148153457 46 1518 65 1081 64 879 59 561
8235 11.894188401117942 3.8718075205635021 -5.9628121462923298 70 54 41 0.64265835231273638 38 1538 46 5036 65 1089 42 5072 64 995 59 4759 55 673
8236 1.3779484951203449 1.5500232555876203 0.26540256618486852 14 94 105 0.28912085393265941 46 2000 65 1123 64 1664 59 1484
8237 4.0959271463025981 0.83009545695429321 1.1111802344396557 92 77 80 0.27552828709485788 46 1745 65 1156
8238 12.296848787209242 4.3278570626874568 -4.5332947360575995 171 153 131 0.20067837342854658 42 1163 65 1162 64 1085
8239 11.579371930051407 4.1063116424229813 -2.5767380187914344 61 46 43 0.77051345620229073 46 2765 65 1171 64 1098
8240 10.09380926330784 4.0953054353849696 -2.1474048597278736 118 105 88 1.0555828241908429 46 1356 65 1189 64 1483 59 1345
8241 10.614617855199683 3.900248571553107 -4.5201374599256292 44 35 27 1.3301969139040239 38 1097 65 1202 43 1267
8242 8.3556930676250758 4.5573993760024232 -4.6157244560544815 56 46 33 0.42577293758933649 38 2897 65 1239
8243 1.4554066679506474 1.439958793887784 0.43583257754514965 80 181 197 0.59033899283055546 46 2220 65 1256 64 1654 59 1478
8244 1.2802943149164643 1.6560365518415638 -0.3791850480255019 27 101 114 0.34917755383183818 46 2159 65 1265 64 2244
8245 1.9262793736518884 1.7422464741412123 1.5931313374539871 28 16 2 1.7331642340903066 46 699 65 1276
8246 1.6506824361021106 1.6753082724798884 1.8382911698545399 119 82 30 0.95900584486028762 42 5313 65 1291
8247 1.7872981414259923 2.7603079664048975 1.7952009371942808 170 198 235 0.74875037579655257 46 4235 65 1357
8248 0.54107553123295016 1.8703162736484902 1.2783051848839775 123 152 196 1.7461441521013352 42 4287 65 1449
8249 1.2298774327594268 2.8105102076679755 -0.20767099460510924 75 102 94 0.2119568300808945 46 5323 65 1487 64 6096
8250 10.613083116788637 2.9278436630904316 -3.4196103189626936 61 52 44 2.0386116795627247 38 2351 64 3056
8251 11.880380309484481 3.7637233473313234 -6.0432532503843781 57 42 32 0.46629416015221076 42 2047 46 5733 65 1509 64 2945 59 1779 54 2605 55 1354
8252 11.886687055204023 4.2825252073116324 -5.7711527779534384 38 31 25 1.150295152579107 42 2180 65 1516 59 1269 55 1710
8253 10.582033285719993 4.3225839762413498 -5.4198497080099939 184 64 28 0.28089660843640613 38 2695 65 1526 43 6610 64 1437
8254 10.63618192872295 4.3462459277626024 -5.4486747815783225 184 64 28 0.082186133925675295 38 4086 65 1527 64 1864
8255 10.617855160389498 4.5195442892201214 -6.0202736457544637 176 57 22 0.3502810217724564 42 2938 65 1528 39 2477 64 3074 59 1613
8256 8.8970526774667142 3.019608236283172 -1.6051173659519633 34 14 16 0.33534761360115067 46 2147 65 1529 64 3310
8257 10.818105272929811 4.49352782787685 -4.9459231833088895 184 88 49 0.90125892213960079 42 5136 46 2175 65 1531 64 3080 59 2637 54 2494 55 1721
8258 10.828771452452745 4.4952080270141996 -4.9491387649919201 184 88 49 0.82155962673691274 42 3341 65 1532 64 3328 59 1734 54 1724 55 1440
8259 9.5944483490361989 4.0198844405996041 -2.8871681492805816 51 41 31 0.8141070472144426 46 3272 65 1540 64 813
8260 9.3228690637877385 4.2043714724689236 -2.7649641394313806 180 171 154 0.16322005361051761 46 1691 65 1546 64 1883
8261 8.8563451112950649 4.1993516175798655 -3.2088340981067804 68 56 44 0.51513240130734406 46 1366 65 1550 64 1127 59 676 54 682
8262 8.9984132180304979 4.6193471895107256 -4.6329935290107249 192 166 143 0.28468484053077409 42 5188 65 1551 59 874
8263 2.649360901885665 1.1674580919857924 0.64931213768646912 220 203 173 1.0233717925590629 46 1696 65 1557
8264 12.477623045597147 2.3607860943395043 -5.6113819962458784 168 159 152 0.20766816661195986 42 2782 46 2492 65 1621 64 1803
8265 1.2298774327594268 2.8105102076679755 -0.20767099460510924 75 102 94 0.2119568300808945 46 4728 65 1650 64 4387
8266 11.906782006564075 2.2967830892849856 -6.5513115821964822 81 59 46 0.76914462967710184 38 1449 46 2617 65 1689 64 2771 59 1136 54 1043
8267 11.933875398798458 2.3569945519392692 -6.6675717095598461 70 48 37 0.52986284061906719 42 4506 65 1691 39 2344 64 1286
8268 5.7894046954150733 0.49266102671337664 0.26384223426791831 205 189 173 1.5922538218535454 46 1817 65 1696
8269 12.23362306134573 2.4974122120715583 -6.0233611714306967 58 49 42 0.36801235260962012 38 2490 65 1699 64 1302
8270 8.2540849415857611 1.1386957733372123 -0.9525892773927519 146 122 125 0.19923812640461686 46 2733 65 1703 59 853 54 776
8271 12.377945422449063 3.0111132585388081 -5.7345816656700519 60 51 46 0.50527659088729859 42 1223 65 1721 39 1393 64 960 59 1188 54 1098
8272 5.5956386582127839 0.83246047449124794 0.45714052602253896 203 195 182 0.51912781795553176 46 1217 65 1732 64 968 59 892
8273 11.962078343646875 3.4643794435741744 -6.0094637178310046 115 105 103 0.2787996576581499 42 1892 65 1737 55 887
8275 11.606312853228296 3.8232035736748733 -6.9056827044396485 133 102 84 0.86623581466941035 42 2152 65 1751 39 2683 64 1378 59 1220
8276 11.880380309484481 3.7637233473313234 -6.0432532503843781 57 42 32 0.46629416015221076 42 2901 46 5755 65 1757 64 3057 59 2520 54 2457 55 1702
8277 12.728652665887056 4.2063797617552874 -6.0315522946216555 44 33 27 1.7940899505011678 38 1895 65 1766 43 2181 64 1401 59 1242 54 1162
8278 12.380486642633073 3.9910192439972776 -4.9009695920802425 30 24 24 0.74138532067834717 42 1337 46 3012 65 1773 64 3250
8279 9.6217345690802496 3.2831316364833487 -2.9746867423941543 124 112 97 0.36964099357111885 46 1916 65 1792 64 3286
8280 5.4850180475176495 1.3592599951055624 0.81479983331273809 150 122 145 1.2598886393473512 46 3108 65 1797
8281 10.666859951694143 4.5332349542102062 -6.044272118923999 176 57 22 0.67041080526641328 38 2009 42 2305 65 1813 39 2035 43 1421 64 3304 59 1304
8282 8.8970526774667142 3.019608236283172 -1.6051173659519633 34 14 16 0.33534761360115067 46 2761 65 1816 64 3077
8283 8.621888507871601 2.9067956064483074 -0.86775633317316214 104 95 76 0.64892849247694573 46 2199 65 1829 64 1448 59 1321 54 565 55 342 67 283 53 243
8284 10.768112743996946 4.9150612669841802 -4.2424957285989464 182 162 135 2.0840494370940554 42 2159 65 1855 55 2756 39 3024
8285 9.4689494313166893 4.3707052251820659 -3.6179886012365587 187 170 144 0.75067696900764513 46 1359 65 1857 55 2350 54 1869
8286 8.8268895655110349 4.0877040004762311 -3.0284516490414943 155 141 127 0.46186403274025917 46 1829 65 1863 55 2393
8287 8.9755476851416702 4.2998362898302123 -3.3223131103769368 150 138 122 0.69808994998254248 46 2258 65 1876 64 1508 59 1362 54 1261 55 522
8288 8.5212806350752643 4.3061960836319386 -3.3917196298485255 52 39 20 0.37975877305286687 46 2004 65 1884 64 1528 59 1897 54 1924 55 2768
8289 2.6549898416864446 1.169397177491726 0.64876762413427502 220 203 173 0.72807652212939489 46 1378 65 1900 64 2049
8290 2.8668089685878346 1.4839543387451792 0.2957368936276199 0 66 82 1.6840663567907159 42 2182 46 1395 65 1913
8292 1.9612092647682451 1.1512176325412726 1.1446904429420284 20 102 116 1.7324013133011362 42 3654 65 1938
8293 1.5572507303992407 1.4274107356874788 0.44174117930289086 66 179 197 0.45837183684884292 46 2807 65 1985 64 1637
8294 2.4181799803090431 1.5327107268735545 0.65381224194500642 197 182 152 0.37262595920474251 46 2800 65 2010 64 5866
8295 1.3927662603929087 1.8211398549624103 0.4417804135470072 31 104 119 0.39915038456586299 42 5270 65 2012 64 1913
8296 7.7901867369525624 0.29447537792469053 -0.76290328762531323 199 183 160 0.54210076801920826 46 3990 65 2017 64 2665
8297 2.393414018336081 1.5579424400862409 0.57364987823008085 254 237 208 0.37434744425313476 42 3659 65 2022 64 2269 59 1434
8298 2.3872995530265144 1.5710560995493454 0.62273384740964777 186 171 140 0.16675611838160623 46 5579 65 2031 64 2290 59 1718
8299 1.9773146653203335 1.2354252111519683 0.99036648147298612 11 100 118 0.53229930167526229 46 3516 65 2035 64 3851
8300 1.8788433098539836 1.2469351244115321 1.1471084577366555 76 167 184 2.2307716574306853 46 3583 65 2076 64 1624
8301 2.4828595981223307 1.4295112641849255 0.57620586806491347 253 236 208 0.20756468145104989 46 3477 65 2087 64 3777
8302 1.388961239156344 1.4955964673810596 0.11597546409525161 66 171 186 0.47063224655655078 46 5938 65 2113 64 2268 59 1704
8303 1.2503174788092548 1.6966115488914888 -0.44903741912581968 54 95 98 0.49774804462661393 46 2058 64 1034
8304 1.514855363765498 1.3640320540919504 0.90744465299460741 33 126 143 0.60186773069126065 42 3819 65 2152 64 2341
8305 1.4348129643895144 1.4607163391941016 0.41949016333785455 52 141 157 1.0351190076877279 42 3786 65 2198 59 2007
8306 1.4728358686564738 1.4075996812073115 0.66177447603031647 36 133 146 0.78672662159142137 42 3799 65 2201 64 4036
8307 1.4859548398364595 1.4068142367036527 0.69753427905117982 42 138 153 0.58190991876956177 42 3802 65 2205
8308 9.7363169682949575 4.0074778911577331 -2.3761053274424988 163 151 138 0.76312120657406846 59 1784 54 1246 54 1881 55 511 67 288
8309 8.3000157427474512 4.3462090150434332 -3.4761276927747229 150 133 114 0.8953750539441655 46 2178 65 2252 64 3621 54 1278
8310 1.2802127119609648 1.44086081070477 0.24911309032074447 38 127 141 2.7814529548604399 46 3692 65 2269 64 2288
8311 1.3269118070101495 1.983898821585182 0.089863830350823751 35 104 119 0.79863144608152759 46 1930 65 2273 64 2215
8312 1.537022396947624 1.2735411563821366 1.1728013297315787 55 147 162 1.4122844562692869 46 1933 65 2309
8314 8.7916904465457435 0.94461693265829239 -1.4105049349126244 126 117 111 0.27865711034510365 42 4213 65 2336
8315 1.7190677815752069 1.3744435400551591 1.1413471068708603 83 184 200 2.0277976665914261 46 3686 64 1646
8316 1.4769383822503614 1.3842426960907286 0.6050954536518276 53 164 181 0.94656320906049007 46 3664 65 2364 64 2347 39 3999
8317 2.6723417619049501 1.3604260220969333 0.48757910408282013 235 220 197 0.97712642838753816 46 2791 65 2372 64 1899 59 1036
8318 1.3991532220943681 1.5635675866424392 0.38683803513533643 10 88 101 0.44867085849271798 46 3742 65 2396 64 4114
8319 1.5358728143931497 1.4778167964954532 0.66391476983885245 41 136 153 1.7091896001470188 42 3815 46 3705 65 2399
8320 2.5617952108901338 1.3660742654285025 0.53950761499662914 186 170 147 0.36528158203335526 46 3444 65 2425 64 3746 59 2098
8321 2.6067677196554073 1.4349246301687553 0.4489643186511818 234 223 205 0.47952741840201824 46 5985 65 2434 64 1579
8323 9.2239085757784771 1.4891882443211419 -2.677548871020504 69 30 21 0.59008383689526001 42 4571 65 2457 59 5542 55 1294
8324 2.4548896109321281 1.4301724576631487 0.6168589952650454 254 247 216 1.2253261233106409 38 2963 65 2471 64 2203 59 1684
8325 2.5190775312358422 1.5363501559028754 0.46251522041474435 164 154 139 0.12664636168820437 46 5975 65 2477 64 2209 59 1688
8326 2.0129210551843104 1.1506243235910498 1.0505521422572284 82 177 195 0.18491451413812485 42 3630 65 2488 64 2074
8327 1.2800704743511317 2.1180295358464698 -0.032911955901303261 40 107 116 0.21345264729441274 46 2832 65 2539 59 1974
8329 0.92281332797786642 1.6737961289434664 1.2769245317080069 118 153 189 0.19190742584437687 46 2312 64 3365
8330 0.93612341987517 1.6740364918927226 1.2723606151684128 186 206 240 1.1598929462285028 46 4771 64 2461
8331 1.5060873240758375 3.1102006358667933 0.18202079438098953 103 95 78 0.99901340176503783 46 3920 65 2671 64 2501 59 1532
8332 0.65886583524661269 1.6806883553652419 1.0775331311224348 126 162 206 0.96001907091857386 46 4719 65 2702
8333 0.74302433763052222 1.7530651681942557 1.222659380553847 111 145 190 0.2428292306383821 42 3906 65 2703
8335 12.074762144120886 1.7170630429847258 -6.5245056384726796 185 169 156 0.30262519988737119 42 4066 65 2939 39 3667 59 2264
8336 10.221571590400446 0.95024715189206854 -2.0267157978949988 111 102 95 2.4761832903914796 46 4175 65 2970
8337 8.5660664283164394 0.72933612039899198 -1.3116044535320619 138 124 114 0.25712762392110117 42 2738 46 4174 65 2979
8339 10.717792055698322 1.3926026971888388 -3.8440340197037259 224 213 207 0.28889975300559051 42 4146 65 2983 59 1124
8341 8.1688233395242769 1.1131723657284669 -0.88529891276342898 179 165 152 0.70769358645711211 46 5432 65 3045 64 2818 59 1161 54 1070 55 1813 53 700
8342 10.920814181087671 2.2543258706860261 -4.7734214422152625 49 37 25 0.52284105851822638 42 4617 46 5435 65 3046 64 5154
8343 8.1946641237300408 1.1562726810896484 -0.90425265643061026 230 212 203 0.33754898759144797 46 2266 65 3050 64 1319 59 1166
8345 10.925886634551624 2.7906289413542638 -4.8949198929328386 43 38 35 1.293653838693003 42 3074 65 3091 39 2575 38 4388
8346 8.5396432957975996 1.8552041073184766 -0.97117523017136109 215 189 176 1.3327541728557752 65 3129 54 2862
8347 9.8751661582696677 2.974039452004908 -3.5481314023894526 36 27 21 1.2954942129916815 42 2911 65 3151 59 2810 55 2142
8348 11.267201611809927 4.7301620819907662 -4.4849630830412002 62 46 30 1.5060469157285601 38 4110 65 3168
8349 8.5245724181734364 0.66600492599203243 -1.1612150508658541 165 134 149 2.2688736943527319 46 1792 65 3194 59 2558 64 5490 67 705 54 1031 53 473
8350 12.211679608058214 3.2049346713318578 -5.6695779632503838 87 78 73 1.761107864529077 38 4011 46 2702 65 3212 39 4107 64 5628 59 2592
8351 12.083623307900073 3.3327804028868577 -6.060122607900027 51 42 42 0.15214036344892332 42 5030 65 3213 39 4112
8352 11.638782770332785 3.4039375650570456 -6.2974449955092275 94 80 71 1.1425189554638651 38 4447 46 5623 65 3215
8353 11.520442810931597 4.3224204598983498 -5.9924386332561346 66 43 37 1.4042422096744531 38 4068 65 3229 43 7086 54 662 55 491
8354 12.565044111148671 4.3322556484001922 -4.4807252139906879 172 153 135 0.32155833530759348 38 2364 65 3232 39 2017
8355 9.376483234063997 3.603501117483435 -2.2359710220910762 49 40 33 1.4546415349104713 42 5163 65 3250 59 1327
8356 10.27919960106213 4.6788018949491184 -5.388226792357627 205 92 54 0.30121685622053018 38 4391 65 3251 39 4200
8357 2.6332315114486318 1.3797692236832881 0.47005132137495209 181 168 149 0.15790384983654024 46 3435 65 3282 64 2981
8358 2.5485177434868516 1.3432037667979104 0.58267693546775789 254 238 214 0.22584527676441923 46 5150 65 3283 64 3116 59 2693
8359 2.4181799803090431 1.5327107268735545 0.65381224194500642 197 182 152 0.37262595920474251 46 1880 65 3299 64 3827
8360 2.3872995530265144 1.5710560995493454 0.62273384740964777 186 171 140 0.16675611838160623 46 3936 65 3301 64 3130 59 2703
8361 1.5841312955724478 1.4376757696700184 0.79349997325637434 59 151 165 1.5266687562026617 46 3697 65 3333
8362 1.3523743747815493 1.394624946875767 0.4254684415572621 52 141 157 0.48583985211863023 65 3334 59 4930
8363 1.3880562630824747 1.8179288121857995 0.4434582301659688 31 104 119 0.17137635959311207 42 4890 46 6014 65 3371
8364 1.4579837097861759 2.0758350840797188 0.55447193817784302 24 101 114 1.872068785622061 46 5270 65 3398 64 3171
8365 0.92281332797786642 1.6737961289434664 1.2769245317080069 118 153 189 0.19190742584437687 46 2842 64 2904
8366 1.2523322604531091 2.2917283818523639 1.1167416141490574 140 172 213 1.2655416160419763 38 2402 65 3439
8367 0.7022035154058347 1.8253806852694572 1.2397693064142832 103 140 184 0.023511311044998484 46 4195 64 3226
8368 0.45462498826532544 1.9386563428564858 1.4658704950346397 64 94 144 2.1887829947821524 42 4343 65 3510
8369 9.66141806871752 3.1410863294342581 -1.4381389455535249 104 96 86 0.22893087576886187 46 3163 65 3558 64 6554
8370 8.889321650574324 2.98697005227663 -1.56799760510353 100 79 84 0.30056192725080499 46 3167 65 3565 64 6566
8371 10.660652059884473 4.400095765762094 -5.0374411725896744 171 58 19 0.4915825463894849 42 3318 65 3578 64 6588 59 3126 54 4745 55 2249
8372 10.698201226476996 4.5551595868892605 -5.3254340371629381 190 67 19 0.32309765195465595 38 2746 46 3192 65 3589 64 3329 59 1739 54 1726
8373 10.825228097917837 4.9628414004972417 -6.5268135601002095 185 154 137 0.55929673448659556 42 2945 46 2191 65 3595 39 2900 38 2743 64 3336
8374 10.414413497022785 4.7226022374145451 -5.745380233923516 177 64 23 0.89985485408580879 42 5144 46 2770 65 3602 59 1766
8375 9.3674211100202385 3.6199151253734918 -2.2305679517350887 49 40 33 2.0814350450430701 42 3408 46 3243 64 1464 59 1618 65 3606
8376 10.260414898260716 4.7665369145386274 -5.9129728167713038 147 53 17 1.8798834969100648 38 2771 65 3607 64 3347 59 3180
8377 8.5172422597103665 3.0506788984057951 -0.74600876602608002 109 89 92 0.77213864792650311 46 3254 65 3618 64 1469 59 1335 54 1239 67 1211
8378 9.9523487964356985 4.6680056397214473 -5.3821132397660412 181 76 37 1.2708064579579585 38 2797 65 3619 64 3359 54 1804 55 3420
8379 10.435381135611097 4.6433823250777335 -4.2494495165628221 132 116 93 0.34312620059916804 42 2175 46 3264 65 3628 64 3093 59 1825 54 1827
8380 2.6894984414677183 1.1259134022549375 0.58244650140121479 232 217 197 0.19762736508238921 46 3342 65 3673 64 2015 59 1986
8381 2.6755829560201247 1.1172431229918371 0.60589776775976223 252 236 213 0.27035428518678134 42 3504 65 3674 59 1385
8382 2.6375336048085511 1.2174967245923658 0.60932716772013518 253 237 210 1.6047175775331779 42 3534 65 3725 64 5827
8383 3.0395114650279775 1.7029059119271337 -0.53889156299884111 2 88 105 3.5601193084048632 38 2893 65 3731 55 3016
8384 3.084575102008889 1.5817362794909196 0.12388895547391728 21 108 125 1.2504215779604848 42 3549 65 3740 59 3415
8385 3.1504614215435467 1.8531369159258639 -0.80432205672300117 199 212 197 1.0736256235588473 46 3399 65 3741 64 2075
8386 2.6244006359947516 1.2743128557462586 0.61365755407952827 254 240 208 1.3767744122377794 42 3547 46 3416 65 3751 64 4386 59 2064
8387 2.580847769009281 1.3011999639595839 0.65249904263676373 214 203 174 0.61015573835619918 46 2043 65 3770 64 2124
8388 3.0849175928882624 1.9902254912733639 -0.75010265163063905 33 84 89 0.41493608828809514 46 3451 65 3784
8389 2.2237594338315509 1.1435809367519298 1.2491353781445478 93 148 155 0.60006223637404332 46 3485 65 3817
8390 2.9718081611380236 2.0990830858876528 -0.67312789976801712 27 73 79 1.0120256960271643 46 3490 65 3823
8392 2.0369370625702961 1.1253728585080505 1.1874654613872007 41 136 151 0.40234108270727748 46 3502 65 3838 64 3811
8393 2.3087898156379754 1.6877158683582181 0.60196916319445037 219 247 240 0.066932359561064067 65 3949 64 2113
8394 3.1014832055863377 2.1365208867107239 0.85395407327609574 57 167 186 1.1968602685577086 42 3804 65 3959
8395 1.6330157178113751 1.6812281220612968 -0.51833423354044195 92 140 148 1.4163606209677411 46 3571 65 3980 64 3916 39 3172
8396 1.4250742904979707 1.5495930054070486 -0.035922591747742989 54 163 184 1.197364879362468 46 3642 64 4001
8398 1.5387236709796106 1.358328273859051 1.0064259480887774 61 157 173 0.56022693104523391 42 3829 65 4177 64 6600
8400 1.4488551776582244 1.3970026161919351 0.79782204802888201 18 115 131 0.82076570520010006 46 1992 65 4208
8401 1.4442670244912419 1.4116798962248691 0.72612225695848076 35 128 142 1.6963225568912106 42 3821 65 4209 64 2256
8402 1.2842241811127166 1.7186358279285812 -0.48160716017201194 200 206 183 1.1663138559407107 38 1935 65 4223
8403 1.4667834292315598 1.427454007239914 0.82403540204218628 5 94 110 1.3181838462875206 46 3945 65 4239 64 4095
8404 1.4046499835626538 1.8544464439479447 -0.54322592018648463 61 94 92 2.3783724660065895 38 1414 65 4243
8405 1.309584413943931 1.6312249748016987 -0.12340955796895045 19 93 106 0.60207755275886099 65 4245 59 3670 46 3702
8407 11.514081242242055 1.5953053687547176 -6.7774242484430189 71 52 43 1.6202153939102133 42 4015 65 4938 46 4018 64 4459
8409 11.948522897901837 1.7530631418750977 -6.8142042253808874 79 64 61 1.3768728327010409 42 4067 46 4059 65 4998 59 3786 54 3611 43 5531
8411 12.107226726803352 1.6936973958656281 -6.3893241504435272 64 49 42 1.2266789704193937 42 4060 46 5910 65 5042 64 4524 59 3788 59 3801
8412 8.6123592299728173 0.57069027636848435 -1.3250381435523861 230 211 199 0.6140922381461873 42 2702 65 5045
8413 12.087963538625576 1.8053645907838904 -6.4664587031338669 47 34 25 0.9792525250451044 42 4089 65 5088 59 3981 54 2107 43 4859
8414 4.0000718504717625 0.0029223866543004956 0.80181757358725902 155 135 139 0.96562299107129701 46 2569 65 5113
8415 11.318270468871324 1.6136044292512597 -4.4782024344519442 221 210 204 1.1510795467515746 42 4958 65 5181 64 4866
8416 9.6248262605756274 1.0354605019391083 -1.8026654554863941 118 109 104 0.17215041089085492 46 4547 65 5209 64 2284
8417 9.3485483352393679 1.0673439608009923 -1.4961131299470958 130 120 113 0.31562427116267611 65 5277 59 4241
8418 1.3122241514121304 3.3628043768235094 0.6666294053480738 143 134 130 0.33289258274396277 38 3829 65 5425
8419 0.75197129031439425 1.7591303409011263 1.1700296050947854 138 172 217 1.1831444686612005 46 2336 64 3215
8420 0.286219182224424 1.6636909903610793 0.87999168378488968 232 202 146 1.4872445196982151 46 1536 65 5539
8421 12.12709117343157 2.3823844148580999 -5.8772351325985781 49 36 30 0.4633962407553347 42 4545 65 5638 39 4368 64 5059
8422 9.66331368393646 1.3431639557240163 -1.6792228877075881 98 89 84 0.69952881637568709 46 4650 65 5658 54 4962
8423 9.1250292627048211 1.4929583547281127 -2.4996941140021769 120 43 50 1.2398850299510769 38 3734 65 5683 39 4398 59 5122 54 4995
8424 11.000392525161402 2.2537224820873409 -4.6297089612844919 227 214 205 1.7344185363504401 38 2502 65 5731 64 5171
8426 5.5531117108025256 0.59270072026186316 0.47366757272343607 242 223 202 0.2833908428843519 42 4658 65 5757 59 5224
8427 12.063576312437336 2.9029978673862988 -6.5386219842275386 211 195 179 0.23152454620300203 38 4046 46 5476 65 5760
8428 7.373489763116079 1.0873061644436648 -0.45043737401249506 101 83 62 0.34972500715894517 46 4970 65 5791 64 5401 54 2277
8429 7.7335801184548334 1.1870680437682131 -0.5399813637337828 176 160 134 0.37851890100511409 46 5530 65 5813 64 2860 59 1184 54 1095 55 1313 67 1139 53 706
8430 11.965266136434463 3.0083708174002526 -6.2496794373829339 55 43 34 1.186976300463624 38 4341 65 5816 59 2434 54 5167
8431 10.004727986057466 1.7610151721457188 -1.685624284832927 82 75 69 0.060797403232190773 46 5868 65 5821
8432 1.2000540705963223 2.7293014486729854 -0.2246545062953636 83 108 101 1.9581698630389799 42 4749 65 6043 64 4923
8433 0.85775060671362813 1.8692969142244089 0.66029468619810594 11 58 77 0.20755676557486458 38 3120 64 1732
8434 8.4490040410768685 0.57540864582317597 -1.3528923041709975 141 128 120 0.42682815730659701 42 4073 46 4079 65 6140
8435 9.4041326463443315 1.0760118561917005 -1.5083643874045694 130 120 113 0.45631455160003659 65 6193 64 5534
8436 9.806498216373182 1.2083191222174201 -1.9234740929519323 94 85 81 0.42784200649567733 42 4974 65 6198 64 5536
8437 9.66331368393646 1.3431639557240163 -1.6792228877075881 98 89 84 0.69952881637568709 46 4949 65 6223 54 4463
8438 9.6694519054000363 1.4065154780046565 -1.7190502023285748 100 91 86 1.0042621909256593 46 4954 65 6231 64 5573
8439 7.3546362943433738 1.0828506337019745 -0.44793114873501161 101 83 62 0.26318215569837816 46 4971 65 6252 64 5606
8440 12.279460460913098 3.4545918952118266 -5.9855499813777309 64 60 55 0.69826757000518003 42 5537 46 5632 65 6264 39 2445 38 2338 64 6281
8441 12.136477021031732 3.161862056831013 -5.990944705082101 195 183 167 0.2695865068504702 42 5451 65 6269 64 5622 59 4715
8442 11.888296852517627 3.9390677301077051 -6.2808399562651438 45 26 12 1.5058960053986674 42 5073 65 6321 64 3059 54 4666 43 2718 55 5480 65 6319
8443 11.551222016867616 4.4093215542554285 -6.6022913316083773 139 121 107 1.2215684929481054 42 3182 46 5063 65 6338 64 5697 54 3000
8444 10.876011889013496 5.0924899978225024 -6.4844237390040744 86 57 33 0.41405994422287851 42 5146 65 6385 64 5739
8445 9.9921892238293779 4.4046421845139792 -3.1897528296099722 143 127 105 0.11455767611407476 42 5184 65 6399 64 5752
8446 9.2368637496898973 3.8704258443337762 -2.0409424156044862 137 125 109 0.59293651796682667 46 2784 65 6401 64 1881
8447 3.0772340524498647 2.3494861980404931 -0.66453684549487813 53 128 141 0.64487618126379809 46 3546 65 6460 64 5868
8448 1.5287276443913447 1.6953935472596608 1.1336378114899783 11 86 107 0.01000697458488997 46 3844 65 6679
8449 9.3500660605718267 2.4022056056231391 -3.1843188141429479 184 174 163 2.0000331282679631 38 4481 65 6890 39 2641 64 978
8450 0.65822704326752746 1.6662554287950586 1.2893140956162534 116 149 194 0.19345166055650317 46 5342 65 6916
8451 8.8625714602125445 2.3185677196360577 -3.0355374450918498 171 161 151 1.9845048657007462 42 5596 65 6998 64 1191
8452 8.9988326870384121 2.4507121958554752 -3.2757013661660088 119 107 98 1.731899850702727 38 4610 65 7014 64 6331 43 5263 59 4750 64 6330
8453 11.940566924712865 3.6291809984406411 -5.9718595734623579 114 109 106 0.3954549065124483 42 2000 46 5702 65 7020 64 6333 55 1345
8454 12.543795420890401 3.5776182847658009 -6.0466357053558628 113 108 104 1.241298903921112 42 2884 46 2714 65 7022 64 5638
8456 3.9833336214273078 0.58075515965843583 1.1192651527123452 120 97 101 1.0550687698690324 46 5701 65 7037 64 6372
8457 9.0162779450853883 2.2559304414030867 -1.6595252739378794 172 165 159 0.22851643810977795 46 5748 65 7059 64 5667 54 4665
8459 10.554238528802671 2.7400052094842806 -2.3188659870622996 64 55 46 2.3017281464462336 46 5751 65 7077
8460 11.925691067960253 3.9535174006915681 -6.2936243319564769 45 26 12 1.2124997790570282 42 5682 65 7079 64 2953 54 2910 43 3463 55 5464
8462 11.89296778707525 4.0903337682701775 -6.1747544279217834 184 164 149 0.099051899857965364 38 4597 65 7106 64 6418
8463 12.459742082529102 3.9874608316277529 -4.999299422109881 67 63 62 0.28542108548697986 42 3132 46 3007 65 7109 64 6427
8464 11.901580537495738 4.2285061099276886 -6.2822851348882454 74 56 42 0.10304520044212244 38 4593 65 7116 43 6506
8465 12.267474627206157 4.0139838153895804 -4.8347049514159854 29 21 19 1.1235271097733865 42 3165 46 3022 65 7122 42 3146
8466 11.836804172925515 4.2696243460318293 -6.209655356568792 67 47 38 0.30567243049731463 42 3149 65 7130 39 2767
8467 11.551222016867616 4.4093215542554285 -6.6022913316083773 139 121 107 1.2215684929481054 42 5104 46 3050 65 7146 64 6474 54 4706
8468 12.45827274416895 4.2338976867867881 -4.9228943035785813 34 23 16 0.27024920072187125 38 2623 42 3210 46 3052 65 7150 64 6477
8469 11.485679874052977 4.5206231824442913 -6.7988972622073751 38 23 16 1.6799150798338514 38 2609 65 7162 43 6555 64 6493 59 3035
8471 9.1200150671600397 3.3987846822471073 -3.0995508952205375 79 66 51 1.5098009402965527 38 2713 46 3151 65 7215
8472 8.4833396235562244 2.8470184910803842 -0.8158280695163781 210 195 172 0.83650275138051 46 6026 65 7267 64 3401 59 3162
8473 10.32653921534917 4.5762510953474225 -5.7150365753560717 170 57 20 1.3194530542045457 42 3336 46 3194 65 7268 64 3333 59 1742 59 3147 54 1737 46 2177 65 3591
8474 9.5903612966633478 3.3008639920716116 -1.2863154287159793 96 78 79 1.4589874313597082 46 3217 65 7279 54 1714
8475 10.700514862512312 4.0966223171902207 -3.058407303851435 100 87 71 1.6204997422337739 42 3381 65 7280 64 3407
8476 10.876011889013496 5.0924899978225024 -6.4844237390040744 86 57 33 0.41405994422287851 42 3362 65 7306 64 3427
8477 9.6557043597094019 3.7876182618070944 -2.4302691741859919 51 41 31 0.56494476504349755 46 3247 65 7315
8478 10.206172659058902 4.7836769474696155 -5.605418279018644 187 81 44 1.1075591885550942 42 3387 65 7322 64 3356 59 3197
8479 9.1566301998112714 3.7455374134087061 -2.2447761226954221 48 40 27 0.051463823022275888 46 3278 65 7355
8480 10.570091437308779 4.2736018494655461 -5.8415900329760699 206 97 59 0.54734524277344088 42 2256 59 1286 64 1427
8481 9.9455706914555577 4.8690902607440902 -5.6246485122315129 174 148 123 1.4407223034324057 42 5829 46 3268 65 7364 64 3480 59 3217 54 3263
8482 9.4348037533247791 3.8984384535656926 -2.3604025078538227 156 144 128 1.2348302060170584 46 3294 65 7365 64 1975
8483 9.8536485894465748 3.8619575478624042 -1.4532786113195362 202 183 163 0.037496638664832577 46 3308 65 7378
8484 9.8803828156272928 4.3580893356117665 -3.1483017239359548 143 127 105 0.28836820502957422 42 3480 65 7388 64 3499 59 3240 54 3286
8485 9.2953338295128543 3.9457134025674656 -2.2525709756685064 44 34 22 0.86012893128737389 42 1437 65 7401 64 1489 59 1845 54 3288
8486 8.4230960231933611 4.4904013772515947 -4.9201471444678546 215 192 174 0.70751159669348029 42 3484 65 7435 64 3549
8487 3.2008144204979843 1.7725298915951531 -0.56272537864867944 47 136 152 0.94743283665751654 38 2889 42 3535 65 7574 64 3685 46 1864 59 1047
8488 11.733191661840928 4.1985765085482782 -6.2619319291126558 82 64 52 0.3506263946284624 42 5087 46 3015 65 7644 64 6723 54 5422 43 5124
8489 7.8246037376505386 0.81279634845239235 -0.54864217360180101 189 171 148 0.95321874021166664 42 2775 65 7695 55 829
8491 9.2814113110123984 1.7487231067337485 -2.5910274211060291 69 57 56 0.48855876038618817 42 1737 46 2885 43 2812 38 4326 65 3057 64 2844 59 5231 54 1084 55 856
8492 12.281654675880416 1.8623306917308842 -6.0361234786513727 60 48 35 0.4459367773239607 38 1433 42 1799 43 1988 65 1673 39 3765 46 2576 64 4645 59 1118 54 2129
8493 10.125477442876125 1.9735524168481711 -3.2660350717099988 243 230 223 1.3088266829016546 38 2519 39 4093 42 1851 65 1502 42 676 46 570 59 405 64 386 54 668 55 760
8494 9.9820343418891895 2.4671203066332787 -3.1263377445576923 12 8 3 1.8637600158349359 38 1802 39 2626 42 1895 39 2640 46 5650 65 3115 43 1163 46 1228 59 2495
8495 11.587519439836566 3.9501632285853994 -6.4431255250969697 55 33 25 1.320380328857476 38 1869 42 1314 43 2945 65 5909 46 2973 42 5686 65 7083 64 2955 59 2953 59 2954 54 2918
8496 2.8095017002991378 1.6532580117373767 0.15971234390467093 5 78 95 1.2309377832065802 65 13 64 14
8497 1.3139285627210955 1.5549809325910073 -0.2984584963256891 57 160 177 2.0538522227518183 46 216 65 84 42 328
8498 10.602048232771919 4.6496083478372618 -5.1261342444242466 163 59 25 0.88091574858526855 38 798 46 653 65 849 64 814 54 656
8499 1.9631376275747645 1.2700035412199022 0.96688818441700342 2 86 107 0.75330830009832483 42 3682 64 1615 46 3538
8500 8.8772891949866661 2.7899238070367618 -1.4486788642999433 97 88 78 1.4996267504776637 42 1158 65 1164
8501 0.50442862287394008 1.7302168264652362 1.607550088892528 99 127 174 0.32778195496089557 46 2399 65 1460
8502 1.4529239825405935 1.4497258872517809 0.41110813467905977 72 174 189 0.37039694443672366 42 3776 46 3672 65 2412 64 4409
8506 10.544111015896503 1.6360891357455465 -3.8925624970681612 226 213 207 0.94394155927964984 46 12 65 10 64 6
8507 10.265005034607164 3.003634161732911 -4.4466242575870414 86 76 67 1.7430159815027064 65 11 64 7 59 13 54 7
8508 2.5179058712823625 2.1596833419202977 0.023581546114265512 47 157 176 1.7710546454116063 65 16 64 10 59 14
8509 1.3819580556902733 3.2107035401585255 -0.14592135531484798 185 165 140 3.1695601754911191 65 40 64 38 59 38
8510 8.7336573667955761 4.4365396928305358 -3.7114311254059249 88 72 56 0.87542167328529708 65 108 64 63 59 56 54 46 55 39
8511 9.14615492381267 4.1095948944744407 -3.4926428083915573 187 167 143 1.9495752021326065 46 104 65 81 64 91 59 70
8512 7.8579302008814746 2.7949453304927445 -0.50744817456285884 138 111 130 1.9786669901491551 64 103 59 71 65 123
8513 1.5588455354968498 3.0734569906959117 0.29960161715224398 64 54 44 0.9118093304270406 65 143 64 105 59 168
8514 2.8845673454421457 2.3797812849094373 -0.65660119452395771 43 129 149 0.48657476602266547 65 98 64 116
8515 11.264101180521001 4.2343587965487428 -5.142209157823797 186 161 132 1.3647566371434201 46 97 64 134 42 155 65 122 59 67 54 66 55 76
8516 8.7139598646954717 3.9675655080039443 -2.2964591208203746 83 67 51 1.2361883541186391 65 182 64 156 59 133 54 105 55 79
8517 10.074712565496085 3.9047208434161753 -4.2380860260957176 121 110 105 1.0427100095721833 65 222 64 158 59 232 54 299
8518 7.8513936285248347 1.0944325270210058 -0.64096262480406485 211 190 163 1.5982504720001589 65 168 64 165 59 138 54 116 55 102 67 80 53 52
8519 2.2945015804079927 1.7215626775636828 0.58648244408670991 51 163 181 0.35506595132405144 65 187 64 185
8520 1.3844528014947066 3.028616755369447 0.44347199862460929 105 95 83 1.1016781882418656 65 193 64 195 59 122
8521 11.902354518546547 4.0686420291626888 -2.7079297179334501 151 132 115 0.31222375412090458 46 290 65 223 64 206
8522 10.55900295952379 4.2466493419095723 -4.2888737821105698 155 139 124 1.4741086709170259 65 226 64 209 54 157 55 133
8523 9.0093290071018099 3.8304062951121609 -1.1213671639625518 90 79 77 0.49506934024955135 65 234 64 218 59 240
8524 10.77567016031284 1.4004642389569137 -3.9430967683182976 223 210 204 1.1107149950350867 65 348 64 234 59 211 54 150
8526 5.7956227136215146 0.69944694202032753 0.36270501251594212 208 194 181 0.70742873656568062 65 271 64 275 59 223
8527 11.117819597898976 4.5146086880846461 -5.0862204775505298 140 50 14 0.52645693547430716 46 462 65 483 64 284
8528 8.8778633418204507 2.924882214751312 -0.96508535240111393 100 91 83 1.535730994643548 65 487 64 288 59 214
8529 9.6303203915591737 3.7018455052142056 -3.0456395364450968 151 137 124 0.473725770727905 65 292 64 290 59 448
8530 10.128695860570662 4.7055768897384951 -4.8084576338122877 175 143 118 0.42073705983659376 46 473 65 497 64 293 59 364 54 161 55 169
8531 9.1200559692082184 4.2372381974440687 -2.7958774556097459 83 73 63 1.509086203563903 65 605 64 294 54 165 55 145 67 143
8532 9.6896752769282113 2.5192739009804166 -3.4518748598132674 36 36 28 2.0853905776795796 65 454 64 308 46 595 54 208 59 225 55 217
8533 1.3002672396292989 3.1293884815538693 0.046275342591657768 159 143 120 0.4778550974198858 65 379 64 319 59 273
8534 11.668101973959027 1.7522163160849846 -6.9466108888867097 74 54 47 1.0876252047950035 39 430 64 333 42 526
8535 2.6734382830821133 1.9634354361251241 0.3991984150275657 4 68 82 1.7033481035923199 65 784 64 339 59 309
8536 2.3727031249283015 1.6600174488320512 0.72721458550015083 2 43 46 0.67184297706528306 65 341 64 340 59 241
8537 11.668884353423939 1.7560346749815365 -6.9478832731468598 74 54 47 1.3340376882178893 39 437 64 359
8538 2.6734382830821133 1.9634354361251241 0.3991984150275657 4 68 82 1.7033481035923199 65 838 64 373 59 308
8539 1.3701988034994643 3.1058468683231042 -0.047854611718775732 138 127 112 0.82424696160722621 65 378 64 374 54 913
8540 11.545120805862776 2.0746649482467348 -5.0939311569706804 43 33 31 0.99903316336328851 46 836 65 439 64 380
8541 11.392156002504567 2.554732543550065 -7.1604872393016219 97 76 65 0.84166093504198614 46 304 64 382 42 472 38 590 39 611
8542 11.436042591464023 2.5227430626423675 -6.8122176304485222 81 51 39 0.52456238959837909 46 557 64 383 42 1052 59 298 54 238
8543 7.7136448068846502 1.3877002838804129 -0.45703162150899923 197 180 154 0.83098055187070907 39 1096 64 390 59 320 54 262 55 204 67 175 53 167
8544 0.88495771088994613 1.6889314829493878 1.2411074217530014 154 177 211 1.8973264798555565 46 6031 65 1021 64 410
8545 9.3705711114019294 4.004551814677785 -2.3672151303914468 155 140 124 0.60988989637785529 65 499 64 420 59 342
8547 11.899489163718219 4.0158683502310897 -4.3305341607973054 163 145 125 1.2316893164378251 46 905 64 438 59 433 54 390
8548 9.940399260070004 4.8330168227972434 -4.5341939388186354 186 157 133 1.8528295602070777 46 633 64 441 59 524 54 244 55 249
8549 11.916212687192386 3.2208615288949014 -6.2776720943341324 189 169 154 0.42224065528260102 46 434 64 477 54 291
8550 11.578334487168348 4.0338990617302484 -3.2247012387942209 70 58 44 1.2641528998443858 65 477 64 498 46 459 59 654
8551 10.911855945871087 4.137124639640323 -3.0325095236765502 88 76 62 1.0647724679098574 65 490 64 505 46 936
8552 10.552864916135093 4.5700327792734257 -3.8868047627983593 176 160 135 1.7719270175983131 65 496 64 509 54 423
8553 9.2619303914651407 4.0599537525866483 -2.2649640976140701 43 32 27 0.12941864927025143 65 501 64 515 59 373 54 217
8554 9.0204973909939969 3.9019667354088017 -1.4369536371401275 96 86 83 0.32229934099768304 65 749 64 519 59 459 54 218 55 320
8555 7.9354573428518078 3.2521985488593135 -0.35042817073450516 129 106 118 1.0874671193261642 65 750 64 520 59 246
8556 1.4180648215245062 3.2575904429440095 -0.21183855567997262 185 167 143 2.252724541159437 65 569 64 567 59 506 54 189
8557 1.3309950781269051 3.0693644352260088 0.38010819309518379 160 148 123 0.20590148204119982 65 628 64 572 59 513
8558 12.13908606859804 1.0166597181829795 -3.2251975397579598 117 104 98 1.1631372130110929 46 803 65 667 64 612
8559 7.4637848370952762 0.70356808316697639 -0.36988121141336866 209 193 177 0.24855817166041755 46 1815 59 395
8560 11.283213963571207 1.3241952549659461 -4.9564171971961111 42 32 23 1.8714201427682626 46 802 65 415 64 616 59 386 54 235 55 442
8561 9.4307710428540226 4.0895627123805776 -2.501434726919594 177 162 143 1.4133159291479991 65 740 64 617 59 670 54 344 55 1010 67 585
8562 3.0347767051766392 2.2313078272052711 -0.54172035460903978 5 75 91 1.519023938127271 46 399 64 634 54 444
8563 2.3310189351829469 1.7091872092187064 0.52326405992565983 192 190 182 0.27169517315843267 65 783 64 644 59 620
8564 8.1147582979143191 3.078284068577374 -0.46992137011043139 227 205 195 0.59836723601186448 65 1192 64 645 59 755 54 427 55 1027 67 400 53 502
8565 2.8208850799307501 2.1641555248478266 0.099122513935549314 30 128 144 2.0686588705172482 65 787 64 647 59 688
8566 0.98068779206983203 1.9042862713113968 0.70511082998133523 0 46 61 1.4841343827678437 65 232 64 679
8567 12.160058285638048 3.0412969071530096 -6.5766400854621949 63 49 40 0.21129683244386441 65 928 64 703 46 1136
8568 8.2029843799694095 2.5157743031377842 -5.3520130668425825 157 128 113 2.3734959392885315 39 878 64 714 38 1492
8569 10.18439931563865 3.786581237236494 -4.0337056613815863 158 137 116 1.7899483140412196 46 918 65 473 59 440 54 303
8570 9.8681566739219093 3.5091804583538622 -2.9759324952674957 42 32 23 2.4703598485726617 39 477 64 744 38 1094
8571 10.690992376329492 4.685353571616993 -5.1644244287600891 156 56 18 0.99449030737879318 46 757 65 732 64 763 54 568
8572 11.094062160729786 4.8639934874236523 -4.9905340534078073 111 41 16 0.33126093361488612 65 734 64 766 59 663 54 570
8573 9.7878914505770744 4.0850228374790705 -2.9454267517605022 44 35 27 0.83799083162817878 65 1844 64 770 59 666 55 509
8574 9.27334309034174 3.7865738312117245 -2.3478642864375585 134 122 106 0.84718564050983713 65 735 64 776 59 667
8575 7.8410095450220574 2.9173430451820668 -0.39324202063098135 139 113 124 0.72496461896265818 65 738 64 778 59 454 54 214 55 168 67 183 53 112
8576 9.6416469180267637 4.0217952737499685 -1.7489651158246358 169 152 133 0.59369326544832446 65 743 64 782 55 515 67 289
8577 8.8002722185298285 4.1307494039232555 -3.0151398190441996 92 79 70 0.60375528802874456 65 744 64 787 59 678 55 1509
8578 9.1516542756777799 4.5416499744682319 -3.8710559862305907 147 131 115 0.95816692584354923 65 745 64 789 59 549 54 434
8579 8.7046958781613846 4.3733965604110443 -3.301730266123208 149 134 113 0.76268777481354899 65 505 64 794 59 697
8580 2.7422342747162021 1.3217660075928281 0.46039364683602768 217 204 187 1.7519651472264133 46 3387 64 807 59 520
8581 9.1516542756777799 4.5416499744682319 -3.8710559862305907 147 131 115 0.95816692584354923 65 847 64 810 59 731 54 316
8582 6.9898282200609829 4.438208478534154 -4.1958193593176647 188 168 143 1.3362216757406369 39 842 64 811 38 1014 59 463 54 221
8583 9.8681566739219093 3.5091804583538622 -2.9759324952674957 42 32 23 2.4703598485726617 39 562 64 821 38 1063
8584 9.2720998038763831 1.8292888070011641 -2.5569922639387559 112 89 80 0.42763009881546044 65 1063 64 836 54 667 55 759 67 349
8585 2.8868030151448134 1.4141732793845989 0.27353461720367117 22 108 127 2.0355042135581511 65 879 59 3684
8586 2.6382121005705641 1.3107560926174675 0.55063895542393337 231 215 198 0.87407867636321945 65 888 64 858 59 710
8587 2.469478407055028 1.5618090386812822 0.68577847788123347 230 222 205 0.25293492713129911 65 772 64 871 59 1432
8590 11.565223231969604 1.6990381164015187 -7.3918502841867877 88 68 57 0.24299815777893871 46 1772 64 918 42 1777 38 2251 39 1325
8591 12.576890907508847 1.5919580216244751 -5.7165757688512402 50 40 32 1.1066671850416137 46 827 65 668 64 921 59 1040 54 773 43 1011 55 591
8592 11.107648335231085 1.5726352703880009 -4.7299659615644147 140 126 117 0.42852695045239225 65 948 64 924 54 549 55 605
8593 11.05549918313856 1.7743001973266372 -4.7076879987091527 139 124 113 2.3080686047320107 65 958 64 930
8594 12.021266552169275 2.0630805722432521 -5.3397738375280808 140 109 111 0.24896258570150684 46 2621 65 1688 64 935
8595 12.57755777516396 2.4848435489669032 -5.6971947431581142 44 34 29 1.5781493781808154 65 1228 64 939 46 4664 59 1152 55 838
8596 9.4124558754941106 1.7196771214673339 -2.6110273734045077 55 23 23 0.71863113899854725 46 2878 65 974 64 949 59 403
8597 9.1932242340603025 1.9906227690993856 -3.3397643198458407 132 118 106 1.6864870782083778 46 859 64 957 54 791 55 644
8598 5.6737583096825039 0.84362262089774964 0.41462609910291787 197 184 175 0.7030336217119042 65 1061 64 967 59 597 55 654 67 519 61 334 62 292 63 366 79 235 66 250 77 262
8599 9.7913032171090482 2.7727513611697678 -3.6322040743807591 134 121 115 1.866874776753128 65 1753 64 989 59 1585
8600 7.7517259760484505 1.7698252455037162 -0.56755673180416988 210 189 171 1.5754511877198447 39 2745 64 994
8601 12.111465961799434 3.9407949378153186 -5.7135152605591193 88 78 69 0.28350553352001145 65 1140 64 997 54 865 43 2170 55 914
8603 2.3715802268766146 1.7144137973504172 0.47236662065856194 181 180 176 0.70834325595982595 65 3928 64 1058 59 925
8604 2.3338653901885893 1.6383089081160223 0.62243188355310486 247 230 204 0.38090558691760318 65 909 64 1059 59 926
8606 11.867004283016131 4.3292261849867542 -5.626895323881679 37 25 21 1.4463687106838026 65 3525 64 1073 59 822 59 3033 55 5102
8607 11.351356517264113 4.596993699241537 -6.885391766569378 56 42 39 0.11679868066791688 46 1139 64 1084 42 1358 38 1554
8608 9.3279366804844415 3.3480408669989492 -2.9735167744295081 26 18 8 1.1747612016896423 65 1525 64 1092 59 652
8609 8.0349864164172846 3.7109491962550107 -5.3216365560437966 76 67 62 1.1171343966880036 46 2122 64 1097 59 878
8610 10.124578674884193 3.9917133544932066 -1.6633223052634505 178 160 136 1.4242862846633801 65 1542 59 1346 64 1481
8611 8.5398184018521892 4.0310653545392654 -3.459618144391138 174 157 137 0.8821322291014958 46 1360 65 1194 64 1119
8612 9.4608035833822814 4.4671967745142709 -3.69576642258219 129 114 95 0.50116781296500634 46 961 65 1199 64 1123 59 759 55 170
8613 9.3634585068804217 4.2405468024421475 -2.7112540873953592 87 75 61 0.56700441229127418 65 1869 64 1125 59 1868 64 2374 54 1542
8615 8.872948746944564 4.2076836541087523 -3.2172563056550172 70 55 48 0.44718334258530784 65 1870 64 1162 54 927
8616 9.1263297113429775 2.9151394451354005 -3.0221288552712098 28 19 16 1.5972152967761766 65 1052 64 1181 59 638
8617 8.1328330906140156 2.7958259642740053 -5.4064852581768124 82 68 67 0.57217859687099892 39 1427 64 1188 38 1521 42 1665
8618 11.701072173590422 4.2262558187412633 -6.5155735685059781 78 62 54 0.76006957356458971 64 1229 54 734
8619 2.3394581351702217 1.6834285756780456 0.54193006239703001 128 121 105 0.42243120240509141 65 4888 64 1233 59 1445
8620 11.83142225335498 2.1336993008035883 -6.8432788517999432 52 33 26 0.17870521784759114 39 1346 64 1276 38 1444 59 829 54 755
8621 10.668365495191283 1.5307545919513366 -3.8892982909525631 230 217 211 0.24129499094069026 65 1685 64 1278 59 1131
8622 9.185064231812742 1.3976041663136172 -2.5304083357075142 91 8 16 0.89206559419547049 46 1176 64 1295 54 995 59 4860 55 1176 67 718 67 2267
8623 9.0542452171946568 1.9668306872868253 -5.1775619612439803 79 47 25 1.6227054525021916 46 4638 65 650 64 1301 65 3027
8624 7.5044850259921425 1.0721241464497946 -0.33398318157127499 194 177 159 0.16996445691394643 65 3058 64 1328 59 1179
8625 11.96884782733874 2.5431507617846667 -3.0247882428872725 57 41 42 1.4619914895759829 46 5591 65 1730 64 1348
8626 5.7911028357111478 0.85325800575251676 0.36598454327258539 202 188 179 1.9804900240655325 64 1351 59 880 65 2888
8627 10.192463239117949 2.3200636630141105 -3.0737606312994927 47 37 29 1.3257318838021788 39 4530 64 1353 59 5385
8628 11.849989902039463 2.8627359174532607 -2.9237606480288805 67 50 46 0.026616683752804148 65 1741 64 1371
8629 9.7928983747320988 2.6330488000399277 -3.627253049568925 67 56 50 0.3843085112202751 65 3123 64 1372 59 2505 54 1136
8630 11.72467843486557 3.841178549486016 -6.5597222286109691 71 42 33 1.469307671596684 46 1246 64 1382 54 2890
8631 11.51256158684583 4.0915843295841015 -6.9882419045444477 84 59 53 0.21736654505135466 46 1626 64 1398 42 2907
8632 12.092427584210117 4.2866411669869198 -5.8783618345941022 34 26 24 1.8510102668574928 65 1779 64 1413 59 2826
8633 12.458903511500047 4.2986644165772701 -4.4388039659140128 161 143 121 0.19200682607301289 65 3532 64 1420 59 1601 54 1576
8634 5.7882837463949883 1.5629023760795324 0.51993859351007676 205 195 185 2.0844594385109931 65 2514 64 1435 59 3106 54 3488 55 955
8635 11.171696207051074 4.4552300445236135 -5.2403828666087033 198 89 54 0.29441401976220671 65 1811 64 1438 54 886
8636 10.335089547137757 4.6686085825594752 -5.6111063020325709 200 90 42 0.45015045532024406 39 2917 64 1453 59 1324 54 1761
8637 10.314008021477886 4.6901754102816184 -5.4990851597922248 198 89 45 0.090904046105125882 46 1332 65 1838 64 1457
